# 3D point list with one line of data per point:
#   POINT3D_ID, X, Y, Z, R, G, B, ERROR, TRACK[] as (IMAGE_ID, POINT2D_IDX)
# Number of points: 361, mean track length: 6.4666476624857472
2019 -1.2471197156979994 0.95081971531423981 4.6905840069682103 149 111 59 1.3390082528981577 71 356 70 91 46 187 48 246 45 438 38 305 39 244 94 52
2022 -0.11043675869981953 -1.9047417209195032 4.8275341500569402 202 189 172 0.96849475098524085 137 320 136 132
2023 -0.59959472037615924 -1.1361159558193235 5.1733740793365675 151 104 58 1.4641330940121431 140 706 70 176 69 27
2025 -0.12874896430926122 2.3435621422143251 5.3277947807756156 148 140 117 1.6716436895182814 5 733 71 569 70 204
2027 -0.46957784510103873 -1.9824207719745974 4.3404354581040323 0 0 0 1.0029030982112848 12 628 71 576
2028 -1.3427009633189575 -0.27788193121766047 5.1588087306759771 133 81 34 1.3835954251924247 71 460 70 217 72 11
2031 -0.7356430710115095 0.38430436635629356 4.4430393809787185 38 39 34 1.6913076836022718 32 1091 71 635 70 258 68 171 31 179 69 83
2032 -0.47828771334610237 0.68148631867749243 4.3655216508394039 202 196 148 1.2525054962330566 3 998 4 757 70 264
2034 0.87742501861780464 -0.52114404033625394 5.1899881425328402 230 231 226 0.7414930161764961 71 675 70 285
2037 -0.40810026314331849 -0.90853695794876799 4.8232519215222354 0 0 0 0.95062495429220384 33 725 71 692 50 110
2038 0.60408055521640458 1.4983360667479266 4.9270812130262414 146 96 47 0.66493596023469115 1 686 3 1061 69 122
2039 -0.62892487633929195 -3.6089123879746636 6.0647186367566261 177 157 130 0.82726094423244845 71 715 70 347
2041 -1.3640620861463708 1.0472798717253544 4.8787099148515471 144 99 44 1.1169971946660313 71 734 70 350 69 148
2042 0.12091735334185257 -2.5894455920046933 4.5177261813023266 102 66 54 0.70137539854883935 70 355 33 734
2043 -0.24856190430019637 -2.3452361798127535 4.5061000052605431 62 35 24 2.906326110319835 33 735 70 357
2045 0.11548210557897994 -2.4803300575771279 4.9033171651257375 181 159 145 1.8181416635248666 71 759 70 368 1 747 68 272 67 254
2046 -0.13881860778158087 -1.5906006600435549 4.8563985391249425 196 184 160 0.068418447586862274 71 746 50 139
2047 0.8875517898598545 -0.21357119693892557 5.2038638177794061 60 47 33 1.1896880632073534 3 1092 71 753 70 375 69 169
2050 0.30116350450490775 0.45195905227674749 4.6626163531806668 216 210 158 1.6226844342410385 6 417 138 423 31 294
2052 -0.016117955358523971 1.6206112617444921 5.7363943368972556 167 157 98 0.44457296636639954 3 1118 70 401
2054 1.1699198442419296 0.51204474803974609 5.0963377934992948 229 230 225 1.092129544628146 71 786 70 405
2056 0.18456862185893796 0.56263529058447259 4.4541037335509142 107 101 63 0.61880437932134358 1 391 33 480 7 392 140 408 138 153 70 146
2059 0.21865545329410324 -0.5928115890868082 4.6767689450495418 176 137 57 1.4148633064493239 5 703 3 797 1 471 33 529 139 331 137 300 70 80 10 1047 11 641 7 370 12 499 9 659 13 251 67 53 34 99
2060 -0.53444483150569833 1.5347763683918441 4.4442630653107376 143 133 82 0.91304569639048416 3 922 1 606 70 234 5 775 9 686 7 616 4 765 6 280 10 1115 71 563 48 423 68 150
2061 -0.73281449801999943 -1.8550466651497353 4.2078639664507387 146 118 96 1.3587155859233504 68 122 67 66 73 130 11 873
2063 -0.75171696858869264 -2.0134339781104762 5.1725124821056001 102 69 50 3.1329648178358451 71 770 70 393
2064 0.70647544253896655 1.6163941639816954 3.2277185967463198 221 222 217 1.2934441715618221 6 422 70 410
2065 -0.86486235363839159 1.3284178024375721 4.5325731295029872 135 127 64 0.55727811119111159 5 290 48 92 45 207
2067 -0.89832611430062148 -0.96382827109401659 5.1430627469719461 152 119 67 0.43579816382795405 1 28 33 371 48 213
2069 -0.27470477162592521 -1.1599028415235961 4.9957526456213728 159 130 72 1.6757334877095829 2 193 48 219 34 28
2071 -0.80558688121287203 -0.98904697785433238 5.0535675424420132 129 85 36 0.44314657858227879 33 499 48 285 47 50
2072 -1.6778824614819499 0.58676269475460197 5.6239182423934153 105 76 39 0.96265375872107639 1 389 2 152 48 361 47 138 49 49
2074 0.65642719676398975 0.96323363778278848 4.8300560186054673 177 142 76 1.8320784820384604 139 496 48 421 34 131 49 100
2077 0.76528115744472702 1.9054041074472305 5.3329580184245415 221 221 211 1.2731968333738364 33 666 70 330 71 713 49 145 69 68
2078 -1.2838816542167149 0.75005312689229275 4.7284387336958886 105 74 30 2.0267423556991879 48 520 47 235 40 159
2079 -1.3324408831354155 -0.81882833701232982 5.2958722593657992 167 165 150 2.2692277882546006 33 724 50 108 68 246 72 128
2080 -0.6981704500271424 0.15866141456042207 4.4296496515091821 210 205 175 1.1772338491489416 70 372 71 751 74 79 73 232
2081 -1.1815097548990185 2.2687864788684569 6.13459460187826 4 3 0 0.15947603675274813 1 757 2 531 69 172
2082 -0.71105971366811516 -0.94838229818616826 5.0113529002672399 147 92 35 2.492162502056094 33 752 137 508 48 579 47 293
2083 -0.056801149712382815 -0.49207342426731848 4.4761153463254999 0 0 0 1.1857460060672389 5 924 33 766
2084 0.059454300664540168 1.6917596072275598 5.5572476823900656 186 180 118 1.1534346327699092 1 768 49 200 2 542
2085 -0.3737671792071075 0.7816852884826081 4.3587066718478322 181 149 79 0.52547907800513349 1 309 2 164 6 80 70 43 48 163 10 252 11 89 7 84 32 583 4 161 3 232 140 232 71 203
2086 -0.5616026379789828 0.72186896458381034 4.3849220863399774 135 93 36 1.1945584599745365 32 819 3 520 71 347 48 249 10 1075 5 640 9 671 11 667 7 558 32 1052 4 715 1 493 2 342 8 259 12 521 137 349 6 238 70 191 15 1139 13 271 14 328 68 110 67 96 46 289 45 301 47 114 49 74
2087 0.46904330144290202 1.4075775202282701 4.6862189495226634 87 57 23 1.9917347784624542 33 662 48 380 140 695 139 284 137 354 138 275 3 962 136 228 47 117
2088 -0.89330618430133657 -1.6345014411278127 3.7153885346548048 144 120 92 0.18860229392195743 139 359 48 386
2090 -0.029009586376260974 -2.2043605320301407 5.2191946126103534 177 145 130 1.7349646689800438 1 658 48 476
2091 0.17797561514195911 -0.9568496540232091 4.9719335472415649 116 74 26 0.56911407667027192 10 51 15 47 18 31
2092 -0.07500966435064739 -0.91075187130660584 4.7810773601806469 137 77 15 0.48961486683884009 12 17 15 62 14 4 17 768 18 404
2093 0.085107691041300171 -0.76871174345552284 4.7469778761552588 146 90 16 0.86009826299438252 12 27 15 105 17 797
2094 0.075031409207437616 -0.75176459850537547 4.7393888746940265 173 121 48 0.74331003477343449 10 88 15 115 17 107 18 62
2095 0.83944953908522235 -0.40790785331873847 5.1378590829046891 42 30 4 0.4836498420618609 12 133 15 163 17 176 18 470
2096 0.098021040874009466 -0.2696241220292756 4.4511956698151733 50 56 45 0.73169471811654696 12 137 15 187 14 10 17 876 18 158
2097 0.22885810039754773 -0.21021076611965653 4.4885694725827712 8 14 8 0.61597599270470593 12 38 15 202 18 178
2098 0.23318689033042114 -0.15575836389959788 4.4840733269180886 53 58 54 1.1586846029470441 12 41 15 213 14 11
2099 0.84123042323355357 -0.13445772123055741 5.0854434272439271 74 62 33 0.94074783830425379 12 148 15 221 17 916 18 527 19 188
2101 0.10092396060618571 -0.004408856868894355 4.4027192040105074 44 53 50 0.40570910353764295 32 170 15 241 17 317
2102 0.15926559856543135 -0.003415148280372181 4.4288368641155076 51 57 55 0.26844706285964387 11 53 15 243 17 319
2103 0.21554317533934927 0.01857463790426991 4.4481834692941034 6 15 10 1.402688757307071 12 164 15 246 18 243 17 323 67 2
2104 0.31827526620831564 0.88481904417073798 4.5513789079031266 159 116 37 0.77888190093683496 10 326 15 309 17 468
2105 -0.075770741296563721 1.2100629547837549 4.4115646380762703 206 192 122 0.87924989819556121 11 257 15 397 17 595
2106 0.13910528835195565 1.1970650605903075 4.4764421653872351 180 147 75 0.56813771359182041 12 83 15 399 17 602 4 275
2107 -0.15905071783313177 -1.022865983831293 4.8317097174141272 145 95 39 0.26658922134038582 11 288 15 469 17 749
2108 -0.11612387277698701 -0.99905391975855673 4.8261396565369772 180 140 81 1.3810547589888447 12 105 15 474 13 29 16 27 31 16
2109 -0.19254539729352171 -0.92305594685838555 4.7499383614690149 164 121 52 0.43397685335546221 12 110 15 488 17 766 18 403
2110 0.25959803376268714 -0.77161434944384555 4.8800985785820208 166 126 64 0.4612834480453481 12 123 15 510 17 798 18 420
2112 0.89665993952024992 -0.40367860460817301 5.1587206597443762 29 16 0 0.77266697763562431 12 134 15 560 17 858 18 796 19 394 22 359 25 138
2113 0.20161185485520092 -0.254482250209765 4.5005863149427077 2 7 1 0.85511355183169113 10 595 15 572 17 879 18 808 20 221
2114 0.7574756237991539 -0.067471731358301604 5.0133829341327729 168 125 56 0.60066085934734303 10 170 15 598 17 930 18 544
2116 0.5799351848533435 0.081987153936965318 4.7643795407399319 159 117 37 0.66486887115914672 12 173 15 624 17 1404 18 566 19 420 22 387 21 814
2117 0.75038408429352366 0.28288966839567087 5.1381346849945979 135 94 30 0.66922351403785774 12 184 15 640 17 1419 18 849 19 575 20 255 21 1048 23 877
2118 0.56629054933375367 0.44955822752029312 4.7879651786196336 196 180 93 0.76388734532892089 12 312 15 648 14 141 17 1428 18 595 19 441 22 551 20 261 21 851
2119 0.15640296728524153 0.84809793304408931 4.4639193794869252 186 153 74 0.29753747964408783 11 396 15 683 17 451
2120 -0.19830049404170635 1.0372208270418855 4.3668819584818195 174 141 62 0.87927569977605735 10 966 15 712 17 1119 18 646
2122 0.18025342039787121 1.2602971876995339 4.5122366149402424 151 105 30 0.81082283686839318 10 993 15 746 14 87 17 1544 19 278
2124 0.48279622906298492 -0.6459083020680465 4.9500532991190038 161 123 61 0.87753819402426969 12 273 15 858 13 100 14 218 17 1331 18 777 20 210 23 595 21 1014
2126 0.00064289846022836012 -0.10910804974740645 4.3868770106814257 24 25 7 0.67929826669760673 10 889 15 894 17 914
2127 0.003129174986253821 -0.070749017608272763 4.3796464911332471 22 25 18 0.50840090255073056 10 893 15 896 17 1661 18 819
2128 0.80079490040606394 0.060623293991377045 5.1743278800926458 121 95 45 1.0180668267180313 12 172 15 908 14 70 17 969 18 564 19 421 22 541 20 244 21 1043 23 870 25 274 24 101
2129 0.74329048397027531 0.20881270684643485 5.1835669736712342 149 112 50 1.2661530933944698 12 306 15 913 14 232 17 1412 18 1060 25 340
2130 0.75406040791061346 0.25816011859571292 5.1688778536586835 162 137 72 1.0193195889527418 12 307 15 914 13 185 14 234 17 1678 18 1205 19 768 22 763 20 431 21 1257 23 1065 16 147 25 428
2131 0.12316789514312032 0.30827173625021209 3.6406898084393364 42 47 25 0.34473697151346527 48 373 15 916
2132 0.14187020212406182 0.53464863181936328 4.447816485858656 198 195 141 0.46315015067500725 10 644 15 925 17 1434
2133 0.83018487137169339 0.65531850731471741 5.2332226573547436 153 123 71 1.6863621516916827 12 322 15 930 14 243 17 1695 19 780 22 832 23 1134 16 70 25 434
2134 -0.0293714353532754 0.86979844995715361 4.4021626490592718 161 117 42 0.68494092371378512 11 681 15 951 17 1474
2135 0.30687073150614635 0.89842216381044648 4.535569305804696 176 144 61 0.70033149873740042 11 573 15 958 17 1716 18 1100 19 598
2136 0.60104300726454318 1.1035412784244119 4.7787318659871687 141 87 17 1.0260306573544267 12 229 15 987 18 925 20 282
2137 0.43012554275899839 1.1126209770351227 4.6037599132998777 141 94 24 1.379368381516084 12 455 15 992 18 921 19 490 16 73
2138 1.0053905771880922 1.1992909321031437 5.3741109602637556 94 68 17 0.93964740256273793 12 233 15 1000 13 140 14 167 17 1732 18 1122 19 714 22 697 20 373 21 1288 23 1092 16 115 25 404 24 189 27 9
2139 0.51635972753453796 1.4520254439183529 4.7930744773736125 136 89 32 1.2143760575730234 12 365 15 1025 20 296 19 638 21 1118
2140 -0.39258742484546078 -2.0746973972310587 4.278425764912746 123 93 59 2.0072261263861146 10 1010 15 1049 17 1765
2144 0.011834468713121849 -1.1572267105710377 5.0242951932912714 136 90 40 0.82674682895028795 12 373 15 1069 13 159 14 197 17 1625 18 1005 19 554 22 502 20 195 21 1004 23 827 16 80
2145 0.67999271900196634 -0.48987625192416862 5.050059808655611 118 82 25 1.3117045908699945 10 868 15 1103 17 1798 18 1184 20 411 21 1237 23 978 24 127
2146 0.76787464626569879 -0.32819029060236543 5.0910363124380682 29 13 0 1.6185425454203766 10 589 15 1108 17 1652 18 1189 19 663 20 417 16 193 13 347
2147 0.80709109235494336 0.58568706540947058 5.2347443648814069 141 109 52 0.96479910530000201 12 318 15 1134 13 112 14 143 17 1831 18 1221 19 685 22 772 20 438 21 1271 23 1078 16 106 25 385 24 180
2148 0.35831996719784709 1.2440062614511276 4.5851947942895563 119 76 21 0.66279918473152566 12 546 15 1175 13 304 14 352 17 1734 19 713 22 594
2149 0.95329142099016562 1.3044826970147856 5.1913181532304291 172 148 91 1.1063412996691298 10 785 15 1178 17 1557 18 1131 19 627 22 600 21 1108 23 1030 25 353 24 143 20 458
2150 1.036421180047838 1.3255889194265098 5.3197484969976312 140 112 62 1.471263917606856 12 470 15 1179 13 220 14 358 18 1345 20 459 16 168 24 191 28 116 27 30
2151 0.54011500958398906 1.4182935751953687 4.8012106945997495 85 50 9 1.3149383158954375 12 474 15 1187 13 222 14 279 17 1864 18 1253 19 802 22 795 20 463 21 1332 16 118
2153 0.30016788934867078 0.050523834478008012 4.5163830794796853 6 16 8 0.055129716798484024 10 1167 15 1235
2154 0.59603467656923259 0.13070194514143241 4.804237598218057 148 102 17 0.89253592823025307 11 660 15 1240 17 1813 10 905
2155 0.75078401853743726 0.35574495069890288 5.1862369703666609 159 132 63 1.0028395897386437 12 412 15 1245 13 266 14 322 19 840 22 872 21 1351 16 204 25 473 28 99 27 37
2156 0.77924833546446415 0.52265310718212055 5.2060589681194083 150 112 50 1.233746921669808 12 416 15 1250 14 324 17 1927 19 843 22 829 20 497 21 1355 23 1163 16 207 25 458 24 240
2157 0.069070986972341694 0.87229699225776081 4.4374080096933524 174 145 65 1.0666644083704795 71 556 15 1263 17 1842 19 696
2158 0.73891667271621364 0.92181165416121613 4.9731708564264423 145 101 38 0.93793544173618981 12 440 15 1272 14 340 13 365 17 1851 18 1331 19 788 20 502 16 212
2159 -0.073310699947573971 1.1568805987564905 4.3886751663069745 164 125 50 0.2515219151743292 9 682 15 1279
2160 -0.68950410236727877 -2.0541662468215143 4.009448798428056 151 134 108 1.7047489464327392 11 802 15 1299 13 318 14 370
2162 -0.0079755851315997921 -2.0096301326780268 4.9958048348705297 181 144 129 1.5531286179574462 12 631 15 1306 13 385 14 439
2163 0.60521178738234394 -0.58105443976360616 5.0062182961478205 116 77 20 0.59164326081574092 12 585 15 1325 14 396 17 1898 18 1374 19 828 16 184
2164 0.5318603735856865 -0.45481217818259473 4.8683122183848724 166 129 58 0.71104001425253471 12 589 15 1328 17 1903 18 1185 19 754 22 743 20 485 21 1239 23 1051
2165 0.81017758762688397 0.67957036295154194 5.1815396914642076 122 79 26 1.3446568877354401 12 519 15 1354 17 1998 18 1391 19 850 22 834 21 1358 23 1168 25 460
2166 0.055796912357188116 1.2608502872196223 4.4459666203593091 147 96 29 1.484481891650121 11 854 15 1371 14 427 17 1954 18 1341 19 710 22 789
2167 0.4265428162220018 -1.9725488485653713 5.387965914977082 169 153 130 1.4843939388507488 12 563 15 1385 14 441 29 39
2168 -0.31737231870378857 -1.8252763876820322 4.6480055115259713 118 84 57 1.6799367057358676 11 877 15 1387 13 388 17 2019 18 1419
2169 -0.26798886399429062 -1.8181423515067643 4.6972346608961377 161 141 130 1.9205975402921283 11 878 15 1388
2172 0.56450029977483707 1.1943974928821037 4.7678062597245079 160 118 42 0.8348242586454121 12 732 15 1446 14 524 17 2059 18 1466 19 923 22 924 16 327
2173 0.56966716556664387 1.3787554717659269 4.816022626800752 104 67 22 1.5249500378906014 12 733 15 1477 13 471 14 525 17 2060 18 1467 19 924 22 926 20 614 19 943 16 328
2174 -0.064366863510342459 1.113328326386706 4.3848805599805862 157 114 36 0.97422155659567167 71 735 72 145 75 183
2175 0.91257868244216866 1.2823757241108824 5.1409343367585629 163 133 69 0.92712908014676687 12 750 15 1489 13 486 14 546 17 2090 18 1520 16 358 28 162 27 77
2176 -0.53502000517645054 -2.2495888174987098 4.1973368126819244 173 156 127 2.1287260359729747 12 755 15 1491 13 491 14 550
2177 0.7673356744687696 1.1434326980808458 5.042728401664041 108 68 19 1.960898583996493 12 768 15 1498 13 503 17 2087 16 355 27 76
2181 0.054192719212167131 1.5356464216453416 4.5223707602339998 198 193 137 1.2872296568801898 12 792 15 1520 13 524 14 581
2182 0.67727329672229497 -0.31510324980507731 4.9480299291941225 111 86 38 2.0634940434638085 10 1385 11 994 7 727 6 366 12 778 13 510 15 1507 14 572 135 60
2183 -0.57309221078233752 -1.8338810372159786 4.2722808827183307 94 68 43 2.0905060528927373 10 814 15 799 18 996 5 297 9 429 32 869
2184 -0.64893480297029726 -1.8416620681366498 4.3298351069693908 123 97 73 0.22802050778383565 137 148 18 1164
2185 -0.63635253239484713 -2.1077084926115188 3.9872677638604999 122 96 68 1.4966975015725485 10 1125 15 1201
2186 -0.13998513112204497 -1.2796110652290082 5.0534500450055413 148 112 54 0.97131777294951704 12 4 15 437 13 0 14 0 31 0
2187 0.37584033971589959 -0.87550388257851663 5.1716955825491464 164 127 74 0.9410057847043467 12 22 15 80 13 3 14 41 16 62
2188 0.53546648732918867 -0.71178989193636066 5.1415851750979504 141 110 55 0.83864167227517949 12 29 13 6 14 51 15 524 17 1328 16 31
2189 0.18038399975351957 -1.0364174143604308 5.1931132250029597 165 139 88 0.44567934856072772 12 106 13 27 14 112
2190 -0.14505969343706121 -1.0074118619330901 4.8563884023409498 177 138 77 0.77350138466692386 15 473 13 28 14 36 17 754 18 392 20 122 21 352 16 26
2191 0.21410000030613677 -1.0003121830610371 5.1044638611807303 130 98 48 1.0191110393084335 12 107 13 30 14 115
2192 0.22828111235679147 -1.0010674207234964 5.1795139358195854 163 135 88 0.41014972023829721 12 108 13 31 14 37 15 478 17 1634
2193 0.34758498574498325 -0.86284216992354601 5.1899500660858298 129 91 44 1.1422999242481753 15 843 13 34 14 42
2194 0.39491476168932738 -0.8283592832978639 5.0688610512610239 154 116 69 0.32761680604163762 12 119 13 35 14 45
2195 0.51757884674962062 -0.73952104012284503 5.1768849199621858 169 152 98 0.34073804833056481 12 128 13 40 14 123
2196 0.95071684041387505 -0.3761678615839697 5.1995214921401844 48 36 14 0.41111665565765926 15 561 13 44 17 1355
2197 0.62379906136213437 0.83206979061629294 4.8288321739997366 152 107 48 0.59745674803827487 10 688 13 65 18 624 17 1084 19 220 21 892 23 750
2199 0.051086973296712801 -1.1076632665061965 5.0459356564569333 135 98 43 1.808578703033022 12 256 13 90 14 199 17 1781 18 1169 20 309 21 1007 22 505 23 830 16 84
2202 0.45668155603693383 -0.78342842958143755 5.1438510635057835 134 97 44 1.0184254180244712 12 124 13 98 14 119 15 847 17 1793 18 1179 19 748 22 807 20 402 21 1302 23 1111 16 91 24 206
2203 0.76537970958928969 0.30673843279468854 5.2938077656567568 154 131 77 0.68989215126400749 12 186 13 110 14 140 17 1683 18 1209 19 677 22 654 20 350 21 1170 23 998 16 100 25 377 24 176 28 65 27 6
2204 0.83744673253256285 0.60754455602889457 5.3117849502222168 146 119 64 1.1858973276444029 12 319 13 113 14 144 15 653 17 1441 18 870 22 559 20 264 21 871 23 734 25 347
2205 0.86470182871241164 0.76568501195235972 5.3184222057033308 105 71 26 1.1624568951768703 12 323 13 119 14 252 15 1147 18 1231 17 1708 19 694 22 673 20 446 21 1277 23 1083 16 161 25 388 24 182
2206 0.20066702823403676 1.626954326061951 4.6622489294938081 137 91 31 1.365469045558672 10 798 13 152 14 95 15 781 17 1263 18 719 19 347 20 186
2208 -0.61588937755140782 -1.9703227655159525 4.1413222119054511 120 94 67 1.9084194639626035 11 609 12 479 33 433 13 154 14 289 72 2 73 47
2209 -0.29486140771933789 -1.0235472286330949 4.8210150107621716 160 113 55 1.1499522251615448 12 488 13 164 14 202 15 830 31 103
2210 0.40431696732005967 -0.86326016741005107 5.2557160609317046 142 111 57 1.6015998263363944 12 384 13 170 14 212 15 1083 16 131 17 1791
2212 0.77241408389236177 -0.51186707204281612 5.167937427892765 66 48 27 0.44538487884470035 12 501 13 178 14 223 28 79
2214 0.77218217623081276 0.40293286362047054 5.2486493274202966 120 86 40 0.63848781932948384 12 415 13 188 14 237 15 1126 17 1826 18 1213 19 774 16 150 28 100 27 19
2215 0.80053567340838605 0.4846598721110939 5.3176135874903423 151 128 72 1.3267750491611296 12 314 13 189 14 238 15 1130 17 1828 18 1319 20 495 16 152 25 457 28 85 27 20
2216 0.82463798876544525 0.55684569718486832 5.3143817392177528 152 126 69 0.78296888765458594 12 417 15 1132 13 191 14 240 17 1830 18 1220 19 778 22 771 20 437 23 1077 16 154 25 433 24 217 28 86 27 21
2217 0.89883538418461828 0.85183087592907514 5.327452365919763 109 76 26 1.5225250964985346 12 430 13 203 14 259 15 1156 17 1715 18 1235 19 699 22 780 20 448 23 1085 16 163 25 390 24 183 28 106 27 25
2218 -0.28065437030477836 0.92188183154725567 4.373259500694795 178 144 68 0.38924691987099597 15 956 13 210 17 1477
2219 0.99250293951307944 1.1267645440540757 5.4368398028092955 155 128 74 0.41920845796487483 12 348 15 1278 13 213 16 164 28 111
2220 1.0294897605761497 1.2548505528990375 5.3693877865887316 140 110 60 1.5681376363331627 12 464 15 1176 13 217 14 272 17 1742 18 1248 19 800 22 791 20 457 21 1289 23 1093 16 167 25 439 24 229 23 1141 28 89
2221 0.36147058265974946 2.013124546295411 5.2177546299147135 86 54 16 0.47912311503374605 15 1040 13 230 14 190
2222 -0.28695322507366122 -1.0671110031041489 4.875430153935822 163 124 57 2.3290295094639366 12 486 13 239
2225 0.76481247434974442 0.32668646547139296 5.2428723722980264 119 87 36 1.8675555584069392 15 1244 13 264 14 320 18 1315 19 769 17 1822 20 493 21 1318 23 1068 23 1126 16 148 25 454 24 213 28 97 12 410 27 17
2226 0.75798056275840286 0.35508920497929736 5.1732009578658964 162 133 65 0.98531404065562067 12 411 13 265 28 98 27 38
2227 0.77607490955469527 0.44680950341156578 5.1701052289191738 154 119 61 0.81453789980969094 12 517 15 1347 13 269 14 411 27 41
2228 0.87009110484993069 0.68686942629341796 5.3214557162502594 144 111 57 0.96742875133524575 12 421 13 270 14 329 28 105
2229 0.87516025906375672 0.73554977004511146 5.2536560828836585 107 73 27 1.5369056375269654 15 1358 13 273 14 415 28 123 27 44
2230 0.90919792960476309 0.91802256884250966 5.2533435421262471 129 95 47 0.80643166154147927 12 531 13 282 14 420 28 107 27 45
2231 0.89849572116213905 0.91957946870257457 5.2750926210489082 129 95 47 1.1695575187138225 12 532 15 1362 13 283 14 419 17 2000 18 1397 19 894 22 887 20 559 21 1387 23 1193 16 213 25 480 24 266 27 46
2232 0.91841648886340943 0.93510747372281899 5.3456457759664362 106 72 27 1.1607443364076957 12 533 13 287 14 341 15 1270 17 1944 18 1332 19 789 22 782 20 503 21 1326 23 1136 16 214 25 437 24 224 27 47
2233 0.94497580235572376 0.99138682864659455 5.4097683439566433 148 123 69 0.87602349010802072 12 442 13 289 14 344 15 1274 17 1947 18 1335 22 838 20 506 21 1328 23 1138 16 216 25 463 24 226 28 108 27 49
2234 0.94487346521366899 1.0257243539057033 5.3616488547897418 101 69 22 1.2664179482478621 12 538 15 1276 13 292 14 345 17 1948 18 1336 19 791 22 839 20 508 21 1329 23 1139 16 218 24 227 28 109 27 26
2235 1.0066810748497736 1.1904697102486972 5.4514802740521695 159 142 91 1.1199170364924971 12 456 13 299 14 347 15 1281 16 265 28 113
2237 1.0618451457935913 1.3297822168337994 5.4468960059535689 146 126 89 0.70336237312895655 12 469 13 307 28 115
2238 0.31156471995094109 1.3990754363476425 4.6190948003053265 104 73 29 1.2302833984918329 9 624 13 310 14 277 15 1185 17 1749 18 1251 19 718 22 704 20 380 16 117
2239 -0.5061782458362607 -2.051329466608153 4.3362243938464502 152 129 98 1.7540081885751195 15 1206 137 213 136 90
2244 0.21162978950661968 -0.94416942194718056 5.0120750876145674 117 76 30 0.60815990711533685 15 1321 13 336 14 390 17 1882 18 1365
2245 0.34777405560676156 -0.85358697752316415 5.0339903707020275 143 107 55 0.87515523515180293 15 1323 13 338 14 302
2246 -0.38158906762481876 -0.47102791964032181 4.4395680400724453 163 128 56 1.0433654629852569 15 1225 13 345 14 306 17 1800 18 1186 19 755 20 333 22 637
2247 0.45794140523154153 -0.29549677230769161 4.7303389018139299 170 126 49 1.6086345487058769 15 1331 13 348 14 314 17 1908 18 1304 22 817 20 487 21 1312 19 831 16 251
2248 0.75998909606898735 -0.20805911977131269 5.0509566437115305 125 88 40 1.3058967630045342 10 1229 13 350 16 252
2249 1.1018907348307323 1.4123365415784179 5.4308641395595689 146 139 121 0.89051406080614548 12 550 13 373 28 130
2250 1.1074562068866736 1.4682196590577192 5.3120818257775584 149 142 124 1.5829313123349211 12 616 13 374 28 131
2251 0.42398670507026537 2.0049032624878866 5.2184648116030647 107 68 35 1.0859808765036603 12 554 13 375 14 368 15 1197 16 124 28 133
2252 -0.55709257121189282 -2.0932907894958293 4.0643666163915135 150 125 95 1.70220345604039 15 1378 13 379 14 434
2254 -0.75391622419880511 -1.8541706375852911 4.2173782573649676 135 109 86 2.099719620253333 12 634 13 386 14 440 17 1978 16 238
2255 0.29300331593172058 -0.93632809533046624 5.1950368995884579 139 99 50 1.5483725181795855 12 582 15 1428 13 393 14 477 16 317
2257 0.057179792858297905 2.0100740619921598 5.0492366762052514 99 60 17 0.7771701157022135 15 1452 13 413 14 503
2258 -0.12527068781320178 2.1998968461767601 5.4305266091995605 226 229 220 1.4493327850093733 15 1421 13 415 14 470 14 505 16 306
2260 0.069748113730192574 -1.6930326534878128 5.6690350702993966 146 122 94 1.2456783081766074 15 1426 13 422 14 474 17 2049 18 1454 19 932 16 315
2261 0.019289686592874711 -1.0668430081043119 4.9755675902657313 150 120 57 1.2309878643945005 10 1317 13 424 30 116 29 51
2262 0.7371674561511965 -0.57477688986521269 5.2622974219032859 157 150 134 0.69914440295228153 12 649 13 428
2263 0.50784046691752527 -0.51735200132817394 4.8899844333227174 161 120 54 0.65688952467730044 12 687 13 429 14 480 29 55
2264 -0.39869911068107328 0.23857091926134399 4.3414925749723121 28 31 24 2.0554529188793587 15 1435 13 436 14 491 17 2029 18 1429 16 290
2265 -0.22771150351737124 -1.4443244635886507 5.0503093544842592 180 168 127 1.7483415638488975 12 713 13 450 14 509
2266 0.23901667424762735 -0.93710967850213589 5.0750307947487876 129 88 40 1.6421667052358837 12 716 13 453 14 532 29 64
2267 -0.45570798560020326 -0.67662662331859125 4.5882560951100695 184 157 80 0.34979742959183413 12 720 13 455
2268 -0.90663663682916051 -0.094769992485524299 4.543863822760887 31 36 32 1.9478662409909113 12 742 13 457 14 485
2269 -0.29474382506748725 0.32891371781367446 4.3508515297431094 187 187 163 0.75010387090155717 15 1468 140 873 14 518 139 518 136 248 34 193 51 100
2270 0.95144517451758936 1.1349475228134007 5.326983145383382 100 64 14 1.2444275536562117 12 748 13 485 30 139 28 161 10 1353 29 78
2271 0.20922313336077972 -1.1079989601730524 5.3140582976209361 153 146 128 1.1267763701921507 15 1493 13 496
2274 0.56078904622700443 1.5285959052265121 4.8200144711196531 142 90 30 1.305301837941564 12 771 15 1501 13 504 16 359
2275 -0.067935318928497287 -1.7765719377106632 6.1607334919196655 154 147 131 0.01589737021296965 12 758 14 569
2276 0.11595817019070376 -1.2909757696180528 5.3987583618272543 152 147 128 0.20979598349277712 12 794 14 584
2277 0.10003399796304577 2.2454741828685507 5.5404393046393094 40 29 11 1.2324558194319619 15 1535 13 537 14 592 16 385
2278 0.32635671551411904 0.38953426197455709 4.6760738648012126 214 211 158 1.7626921587591855 15 1545 14 602 16 398
2279 0.47443611953773246 1.0312397422718422 4.6485782462892935 176 143 72 0.69849787312528744 5 432 9 394 11 586 4 235 3 346 140 416 7 322 2 181 71 300 13 133 12 343 15 716 14 160 19 242 17 553
2280 -0.34351132754706221 0.96947464709450926 4.3601748623495507 163 124 66 0.93293443314726643 8 148 12 337 13 68 10 378 5 250 9 176 11 191 7 160 32 350 4 229 3 323 1 170 6 43 70 56 48 189 46 86 47 42
2281 0.1186289125857061 0.01727285690801026 4.4086915272948062 18 22 20 1.0007934434250247 140 505 33 421 8 67 139 201 13 107 10 902 11 517 12 305 17 1395 16 41 67 22 31 80
2282 -0.18319679425123367 0.98704062251376701 4.3693638303308626 147 102 39 1.0351914769701858 5 659 7 498 4 645 3 837 71 559 6 196 13 129 10 959 9 516 12 216 15 707
2283 -0.42796632384870403 -1.9443270999926838 4.2786024228389996 129 117 91 1.6946632280928324 5 684 9 696 32 1017 13 321 13 383 3 756 8 226 11 806 14 375
2284 -0.46870733272312226 -1.9504339849801324 4.1812434883352596 65 58 46 0.76176859829203014 13 320 12 557 8 224
2285 -0.071330660834237378 -2.0305484310497568 4.9421181537389955 140 88 71 1.1855154820876244 13 419 14 472
2286 0.015494915205989241 -0.044840095249879086 4.383020491530389 55 60 56 1.1655023735911643 12 51 14 13 18 229 20 32
2287 0.27123550375024991 1.1859881400276853 4.5335549530815671 111 79 20 0.76020302209513779 15 739 14 21 17 1180 18 680 19 268
2288 -0.14753833700533681 -1.1065467331641201 4.9100104770310695 171 144 77 0.40747843507584891 15 457 14 33 17 737
2289 0.061227510752980344 -1.0967566636833432 5.0070418069746703 133 98 42 0.91685263237512371 15 456 14 34 18 381 17 17 20 51 21 346
2290 0.39014556319931615 -0.83177268355154632 5.0764707895835768 150 113 68 0.19709109448445553 15 502 14 44
2291 0.50128272541779062 -0.73968500000527537 5.1359021259512696 131 92 41 0.5185719641554225 15 850 14 50 17 1326 18 1017 16 64
2292 0.43760181861307207 -0.35899254177014311 4.8199657760912 175 125 54 0.77650937859787916 13 7 14 56 16 36
2294 0.8635607090877403 0.7449151999980842 5.359035634903325 141 109 61 1.0021298591267722 12 192 13 115 15 933 14 77 17 1703 18 1088 19 692 22 670 20 358 23 898 21 1077 16 71 25 387 24 108
2295 1.0264491344506039 1.292242245505602 5.4625339889977473 155 135 85 0.23483919753659843 15 1009 14 88 16 74
2296 1.022841989668863 1.5210012443285212 5.3919355611211017 178 171 146 0.14394109440517858 15 1030 14 94 16 120
2297 0.88461179600867601 1.7690652040900523 5.5248959643527895 138 130 109 0.18514856824718465 15 1034 14 96 16 122
2298 0.43493546647105036 2.0960535204192179 5.4230952043945289 82 53 20 0.74270638015852486 12 90 14 100 17 1278 18 733 19 372
2300 1.052238291727881 -0.096518744057991726 5.1644785840186644 84 72 48 1.027017591876761 12 152 13 105 14 132
2301 0.53470538421090963 0.4791131693062563 4.7698886218063699 197 178 102 0.56165784665444274 15 921 14 142 17 1688 22 553
2302 0.53850087158827686 0.75660667718503671 4.7221224582798342 155 107 39 0.97860505661110653 15 1148 14 149 18 1230 14 251 22 669 21 1275
2303 0.098716467038576061 1.0171871558682943 4.4149798506649001 162 119 41 0.45325394599602009 13 131 15 975 14 158
2304 0.93619875058009072 1.3222974155318767 5.1614615341760599 147 117 55 0.59528193511117611 15 1015 14 174 17 1746 18 1132 19 629 22 702 20 378 21 1113 23 933 25 355
2305 0.65056505345268367 1.3627356149347778 4.8564516175328096 90 56 15 1.2004384367464311 12 472 15 1017 14 176
2306 0.50142808778751213 1.4317287583236171 4.7537903426368056 93 62 8 1.0174516192143221 15 1024 14 181 17 1577 18 969 19 635 22 606 20 382 21 971 16 76 16 173
2307 0.9053083610766145 1.5479622423127652 5.1781668908955476 120 76 27 0.46131779220334768 15 1193 14 187 22 612 25 365
2308 0.86769060185720603 1.7436540272544145 5.4996669415539552 180 178 161 1.5881551856904803 15 1194 14 188 16 174
2309 -0.48379583466191411 -1.4160976186061183 4.9521993801630924 172 158 127 1.3940964086054566 15 1067 14 196 17 1621 18 744 19 383
2310 0.6699034682343421 0.017655190448800831 5.6089710674922886 138 107 58 1.0332615090866579 15 1236 14 228 16 256
2311 0.7686650187253975 0.37603104286653199 5.3022455225511349 155 139 83 0.60208436979478897 13 186 15 1123 14 235 17 1685 18 1211 19 679 22 658 20 351 21 1172 23 999 16 102 25 378 24 134
2312 0.76908479350495207 0.37450311045848605 5.3036458452518218 155 139 83 0.70550266261440864 13 187 15 1124 14 236 20 352 16 103 28 84 27 7
2313 0.80745752917962876 0.58644050426499861 5.2953569198073618 99 66 20 1.426555668917955 12 316 15 1133 14 241 17 1693 18 1079 19 684 22 662 20 356 21 1178 23 1009 16 105 25 384 24 137
2314 0.83210658523704817 0.66079904729421413 5.2935275820819756 101 69 20 0.91417987753680741 12 191 13 195 14 244 17 1696 18 1223 19 686 22 774 20 439 16 107 24 181 27 22
2316 0.61236466237211629 1.18275533480886 4.8032631118903986 141 90 25 0.99556401343573953 15 1171 14 266 17 1727 18 1246 19 709 22 588 20 454 21 1094
2317 0.59049097993990129 1.2079880566913126 4.7877372989007076 165 123 51 0.98723833267721239 15 1003 14 270 18 1119 19 619 22 591 21 1097
2319 -0.41030762591793313 -1.3827161086852395 5.0770683546126589 168 150 110 1.1733386278994316 15 1213 14 294 16 179
2320 -0.41793736494223449 -1.3559976303922325 5.150471991833764 184 179 167 1.9077498380767686 15 1068 14 295 17 1879 18 1275
2321 0.77673533010341822 0.3892841092110722 5.3904969228674489 118 82 32 1.0891434532089452 15 1246 14 323 17 1924 18 1384 19 841 22 828 20 494 21 1352 16 149
2323 0.86949360178882151 0.81052907934395557 5.2702086314292478 126 95 40 0.69729350127359324 15 1262 14 335 17 1941 18 1329 19 857 22 835 20 501 16 210 25 462 24 222 27 24
2324 0.91388101339822869 0.9363942152318403 5.3483464647284595 91 57 11 1.041152584935318 15 1271 14 342 17 1943 18 1333 19 790 22 783 20 504 21 1327 23 1137 16 215 25 438 24 225
2325 0.98855586008735341 1.3368322697840547 5.2159160466730521 123 87 31 1.5510806625508358 15 1287 14 359 17 1959 18 1346 19 801 22 793 20 514 21 1292 23 1097 16 224 25 441
2326 1.0420083247299381 1.3970684661498556 5.2918813800451332 134 117 71 1.7199985527069868 12 473 13 309 15 1186 14 361 17 1865 18 1140 19 722 22 709 20 384 21 1201 23 942 16 171 25 358 24 147 28 129 27 31
2327 0.011953115993827338 2.1159344508578943 5.4825435971511398 96 58 19 0.63259248643542831 14 367 16 123
2328 -0.42335159945823619 -1.9377745200705261 3.6288525507743614 0 0 0 1.130073832733054 10 1204 11 801
2329 -0.42887556197302473 -1.992549673545325 4.2368670722174757 126 95 66 0.64913089126192136 11 804 14 374
2330 -0.41143878196798306 -1.9378351749746228 4.2608795351785744 153 130 98 1.6275937985223925 6 207 13 384 14 376
2332 0.32916218344145848 -1.9181857715557951 5.8551512012267599 123 98 76 1.4926214917093166 17 2047 18 1452 29 34 27 60
2333 0.88157391008145003 -0.067609684993080593 5.4506865889880434 58 46 25 0.53370446548775385 15 1334 14 401 27 35
2334 0.46938281123953929 0.59118334975729703 4.6877177834350254 167 115 39 0.59334246352076214 15 1350 14 412 17 1928 18 1320 18 1386 19 845 22 830
2335 0.87773149667988615 0.87126502109745141 5.2104032678749519 103 65 16 0.96017164873033145 12 530 14 418 17 1999 18 1396 19 893 22 885 15 1360 20 558 21 1364 16 262 16 263 25 479
2337 1.0460561122969847 1.4783861519307617 5.2918781900196752 182 181 158 1.0503253768536196 15 1417 14 429 27 58
2338 0.85868500900841493 1.5733865655938137 5.1586054854085832 155 116 51 0.59313548930179372 15 1375 14 430 17 1960 18 1347 19 804 22 844 25 443
2339 0.03150731007985149 -2.292962146350392 5.2421723647330287 188 161 144 2.2938860095081361 15 1379 14 436
2340 0.65533362282007901 1.009704043072746 4.8706161902358174 158 113 46 0.7500002702054942 15 1411 14 462 17 2002 18 1441 19 895 22 888 20 591 21 1365 23 1175
2341 0.40090599916262959 1.1618228384382556 4.5886837691394398 159 123 49 0.63701466940269991 12 673 14 465 17 2006
2344 0.49557605426749524 1.9965307710703142 5.2913378740360093 117 73 22 1.1981692995406701 15 1420 14 504 17 2042 18 1471 19 906 22 899 20 571 16 305 25 488
2345 -0.29011434029485128 -0.60586596056165409 4.5362450414447375 220 216 189 0.59279078384331252 15 1461 14 514 16 319
2346 -0.29662242633425712 0.33153102291490055 4.3444459960203297 208 208 184 1.8806882894327515 13 463 14 519 35 143
2349 0.47248962632932101 1.3939687022397769 4.6779353399283385 111 80 26 1.4495853718079583 12 753 14 547 17 2079 18 1495 19 944 22 947 20 615
2351 -0.53203793935405552 -0.76149003578146213 4.7076064759112821 180 146 74 0.76770148515282755 15 1483 14 555
2353 0.75754293952452001 1.8418209269189791 5.3022128330253882 89 54 14 1.434861345504107 15 1511 14 562 16 370
2354 0.074075755413039512 -2.0407817925617531 5.1851777489162467 189 152 143 2.6947421595239098 12 777 13 507 14 566
2357 0.0017744669993472683 -1.6157450894800554 4.7996268095460577 191 178 159 0.61181856050359684 15 1522 14 583
2359 -0.5845354705974054 -1.7362078789039144 4.592775582647187 91 61 36 1.2741260168530846 14 593 17 2112 18 1528 16 387
2360 0.19607823021312062 -0.87009134052317683 4.9164022933701998 175 139 86 0.53932317139843733 10 532 5 39 9 261 11 298 7 226 32 78 140 108 33 277 138 72 15 496 14 39 12 266 13 97 17 774 18 406
2362 0.55318348753063529 1.0908483003708562 4.696372027346519 158 114 44 2.6889975787748925 12 790 15 1518 14 579 10 1405 9 893 11 1015 8 449 13 533 16 382 29 100
2363 0.97510970063543256 1.0646758446867597 5.4048423063233448 120 108 74 1.5287477335710276 10 734 9 387 12 447 14 262 13 295 15 1165 17 1723 18 1243 19 708 21 1194 16 219 25 403 28 110 27 50
2365 -1.1164545082778177 -0.17755436323071977 4.65063973320167 189 191 180 2.6982267058420542 13 398 14 484
2366 1.8642772142476192 0.028913215454211594 5.2839908112407139 202 201 196 0.48687871415956868 15 1529 14 588
2367 -0.11143344456134331 -1.1286441714501099 4.9278585922524458 179 154 88 0.33779003013365466 15 451 17 11 18 377
2368 0.078734026706917398 -1.1029029428372668 5.0467864709248111 126 92 39 0.8562196930357765 15 24 17 19 18 14
2369 0.16061819952991807 -0.91575598684870518 4.9296008625042953 159 123 71 0.34041501627606857 15 60 17 51 18 34
2370 0.43234302768059241 -0.82410295966306957 5.153851222437897 144 112 56 0.47616732765043657 15 94 17 90 18 414
2371 0.3277173935156199 -0.78529070856587846 4.9332589618765468 124 83 27 0.4624749932189231 15 103 17 95 18 56
2372 -0.10859784926626991 -0.7664395137327541 4.6536540617926621 176 126 52 0.22943890960704449 15 109 17 104 18 60
2373 0.32728491887403749 -0.71914442483547447 4.87660711601578 118 68 7 0.25228076416457051 15 131 17 116 18 64
2374 0.48895985468114483 -0.66576584306596043 4.9736056943732976 118 76 16 0.5714317527665389 15 144 17 129 18 76
2375 0.19879121130774904 -0.62049194901359361 4.6986326962719023 174 129 46 0.61203648050465931 15 149 17 134 18 80
2376 0.8551905105734392 -0.31125931540526663 5.1186370796503429 65 49 33 0.68161755303038374 15 179 17 207 18 144 22 12 21 25 25 29
2377 0.20305087004533162 -0.23659083033828002 4.481889388487593 44 50 46 0.31423617499004824 15 191 17 232 18 494
2378 0.21538620252340565 -0.11226718244950799 4.4582944872098809 77 83 79 0.4369737470565534 15 228 17 279 18 211
2379 0.18564800345998519 0.023727280737233344 4.4281667495250447 4 8 7 0.40079006383693194 15 247 17 325 20 84
2380 0.28727306931373209 0.049746368116924747 4.4896817582835888 43 48 46 0.64579144951254663 15 251 17 330 18 250
2382 0.023422196095732765 0.79563895452566502 4.4100329278078467 155 116 37 0.68919351272537288 10 268 11 380 17 428
2383 0.44039065080808476 0.86507730684223172 4.6190024030245889 120 83 20 0.52804065345457452 11 151 15 687 17 463 18 896
2384 0.22102844725232998 1.0037816915730366 4.4822219163229295 185 152 72 0.6962610126947274 15 359 17 526 18 323
2385 0.21156841070284044 1.1336540200110252 4.4870559646730568 189 152 76 0.37486743578785614 15 391 17 585 18 335 19 256
2386 0.33232621213472652 1.1522400474930148 4.5435745897531339 160 127 64 0.71771044277546192 15 735 17 594 18 676
2388 0.29574299443804719 1.3056536274004564 4.5714136188053951 145 114 58 0.88828778093802518 15 414 17 640 18 347 19 294 22 94
2389 -0.011396867758572796 -1.1299932208729795 4.9670295716113886 149 124 59 0.76085225663719847 15 450 17 731 18 751
2390 -0.019036840492069568 -1.1040110636692226 4.9841955671899463 136 102 44 0.59249808450986108 15 19 17 738 18 18 20 53 21 348
2391 -0.030910041915665293 -1.0765557286418401 4.9287679002953508 129 88 32 0.43422268567422806 15 461 17 740 18 385 20 55
2392 -0.2288251949918238 -1.0399602299740833 4.8533476924654408 178 138 76 0.50715759070073851 15 465 17 748 18 390
2393 0.090496906507227928 -0.99579435238256797 4.9427748315939057 160 123 70 1.073359301951996 15 475 17 752 18 761
2394 0.13929077858329572 -0.94536768613588906 4.9468190256632889 133 91 41 0.51927682811118103 15 485 17 763
2395 0.11713501232473551 -0.91022476119956408 4.916177992073627 128 82 30 0.21837793420371121 15 490 17 769 18 399
2396 0.26526257739322684 -0.86731359082648907 4.9738496879872764 165 129 79 0.6454478358554443 15 79 17 776 18 47 21 356 23 20
2397 0.36812815584466002 -0.77680481725157247 4.9512792599832878 120 79 26 0.90017963188604033 15 509 17 796 18 419
2398 0.27641062760959229 -0.74799733263033208 4.8740632559171644 122 66 9 0.36379122074126286 15 117 17 801 18 424
2399 0.35944962169145261 -0.66651037811734315 4.8761297178057914 153 105 40 0.35073201709038965 15 533 17 811 18 432
2400 0.38680555797337235 -0.62537992425374589 4.8857362175794803 151 103 32 0.50239460086149412 15 541 17 818 18 780
2401 0.5347213547650006 -0.55118231389636807 4.9110556954103926 160 123 55 0.37623675398381923 15 548 17 825 18 441
2402 0.38447435377667905 -0.47732912122175547 4.7579844976357171 182 136 59 0.46517284415962346 15 160 17 841 18 790
2403 0.56934827020425094 -0.45825950338096172 4.8768811340863678 143 96 28 0.97059023003293454 12 32 17 847 18 461
2404 0.45232811965275344 -0.37764438037468168 4.7851465986245802 146 87 16 0.69989624423454855 15 167 17 860 18 473
2405 0.89604350308429326 -0.27129769763921363 5.120997605291346 23 6 0 0.69868382605856849 15 571 17 881 18 492
2406 0.75227658278231713 -0.24832197996964464 5.0292724570333736 147 106 50 1.2362308584223416 15 193 17 884 18 497 21 770 23 631
2407 0.87601878001046951 -0.21167692371750865 5.0998904365800177 25 13 0 0.72828633224771633 15 577 17 894 18 506 22 168 25 163
2408 0.891522619929492 -0.19643069260491158 5.1113975137228094 77 65 41 0.36012239592504863 15 210 17 899 18 511
2409 0.506763236200657 -0.15002303559670752 4.7094783631184525 193 170 92 0.63855574279414618 15 584 17 906 18 517
2410 1.0026060083200419 -0.13328159942771198 5.1675741389181598 22 8 0 0.71609178685607611 15 226 17 919 18 528 22 182 21 439 23 382 25 172
2411 1.0163598742318201 -0.12046121396934177 5.1756239530103638 82 70 46 0.66933784495589121 15 589 17 921 18 531 22 187 21 445 25 176
2412 0.27603056316215918 -0.070697860918250005 4.4816106084178093 34 39 35 0.46976578022725191 15 594 17 922 18 223
2413 0.92360418415680812 -0.049803828862187496 5.1438938542528376 70 56 29 0.24850835101635005 15 604 17 936 18 826 19 410
2414 0.89420074808860139 -0.021416959416069675 5.1536644385626404 25 8 0 0.55494294743941186 15 242 17 943 18 551
2415 0.7961328830879737 -0.010108496493747008 5.1260632202047187 112 81 39 0.52537591199473188 15 615 17 949 18 553 19 415 25 339 22 540
2416 0.18718142105112029 0.18663376202692894 4.4322161367702506 42 47 41 0.47449917839047001 15 266 17 981 18 266
2417 0.77981260954979081 0.17294428298802628 5.2583670714617039 96 64 23 1.0427869674086541 15 265 17 986 18 577 19 197 22 214 20 162 21 513 23 462 16 46 25 184
2418 0.68193391700512929 0.39286624852265178 4.9830887453949719 156 104 36 0.76180388451038394 15 269 17 1013 22 402
2419 0.5630141897491342 0.47535474522734961 4.7827398767090887 160 118 42 0.43678919102438379 15 649 17 1020 18 596
2420 0.76374992983026457 0.47809500360454499 5.166638753928348 159 123 61 0.78657736957963476 15 270 17 1023 18 862 19 443 21 856 23 727 25 283 25 345
2421 0.51308019366922497 0.82657879153603464 4.7029251716760507 129 91 29 0.61831535127427228 10 280 17 1080 19 219
2422 0.048027797070792785 0.93812106357465719 4.4186313551249583 147 104 28 0.92341623178600951 3 552 17 1098 18 634
2423 0.5737218161308586 0.9083465972870044 4.7661722217604154 164 124 55 0.93231909647602984 15 695 17 1100 18 899 19 463 20 177
2424 0.46403393438124119 0.92754505515911523 4.645135279596869 153 115 50 1.0745715817973009 10 717 17 1107 19 468 22 424
2425 0.77737264796150318 0.93133702186459155 5.0158078803590893 138 97 41 0.47684733656608708 15 328 17 1114 18 643 19 230 22 240 21 910 23 760
2426 0.047201635612454391 1.058101767020831 4.4253264848770044 157 110 40 0.67364863366642591 2 109 15 722 17 1134
2427 0.14844204989238746 1.0801718211889189 4.4670683451689177 156 117 38 0.47594727690902444 15 728 17 1145 18 658
2428 0.23760120961357292 1.125776966392156 4.5012034600428628 157 117 52 1.0577138512501709 15 388 17 1161 18 668 19 82 22 262
2429 0.65744776089482626 1.0938447449719988 4.8581044297954943 173 136 65 1.0176934262000743 15 983 17 1162 18 922 19 492 22 441 20 369 23 782
2430 0.6606854604926049 1.0938524351830106 4.8560352830225462 173 136 65 1.137835820574042 15 984 17 1163 19 491 20 368 21 933 22 440 23 781
2431 0.34194117216264636 1.1415645690583458 4.5622576990980219 119 79 18 0.74937627481371094 15 733 17 1170 18 671 19 261
2432 0.36149344006757017 1.1865217425928378 4.5807933750228349 159 120 55 1.3455167580667464 15 1001 17 1183 18 931 19 498 22 449
2433 0.084946336700733038 1.2571557449274249 4.458473891992254 177 139 64 0.66716106325354441 15 745 17 1192 22 278
2434 0.21417471601590454 1.2449810041544258 4.5143470003389607 173 134 65 0.53309817432722173 15 744 17 1193 18 687 19 277 22 279
2435 0.75722274265850165 1.236634653661977 5.0053101983198669 90 58 9 0.9128216148035655 15 743 17 1200 18 943 22 457 19 287 21 1102 23 923
2436 0.92147289145384081 1.2699329671784365 5.1577318577564872 144 111 44 0.55057789179309224 15 1010 17 1207 19 507 22 598 21 1105 25 351
2437 0.97004923699840928 1.2691919368570057 5.2055015141185104 129 92 34 0.71756741694778492 15 750 17 1208 22 292 25 305
2438 0.18832515193700566 1.3491567249027672 4.5231655672553837 136 88 20 0.95238552983431202 15 756 17 1212 18 349
2439 0.3608692185132476 1.3432088027274891 4.6272358057964826 143 111 54 0.51265741326409864 15 757 17 1216 19 120 22 293
2440 0.90682580675849811 1.3148647343516389 5.1287118548128268 142 102 39 0.5274637745234505 15 416 17 1220 18 703 19 313 22 302 21 655
2441 0.15859564916831384 1.4822886502515036 4.5720487243145982 146 106 36 0.63634762876863127 15 775 17 1243 18 712 19 323
2442 1.0183533967778566 1.4210332867451911 5.2502442097425215 122 88 35 0.84053303309310257 15 768 17 1250 19 336 18 971 22 482 21 980 23 565 25 224
2443 -0.014951754085753367 1.5352670588193311 4.52912567018278 180 175 119 0.72431647498378648 15 778 17 1251 19 330
2444 0.36516729818708082 2.1758095525139818 5.3633175177178369 21 9 0 0.91873395698722593 15 790 17 1282 19 547 21 715
2445 -0.0045501400206819573 -1.2007688021136611 5.1399985121608234 109 65 20 1.3003794229371941 15 811 17 1294 18 749 20 193 19 650
2446 0.051532414868512365 -0.97184589811679922 4.8920530345166995 155 115 63 0.5374857705994428 15 479 17 1306 18 763
2447 0.25074981777457889 -0.96916237099067781 5.1441851804002647 108 66 22 0.4031704538415245 15 483 17 1310 18 765 20 201
2448 0.19207318082486946 -0.91163004680885473 4.9511622245469633 164 128 78 0.36341251159146021 15 489 17 1313 18 767
2450 0.50791333927930604 -0.60829323335336083 4.9273630194061599 124 78 16 0.61661832684239226 15 865 17 1333 18 438
2451 0.59931095678759783 -0.47731410864821511 4.9187951489247057 163 125 57 0.55802217300670287 15 869 17 1343 18 791 20 135 23 836
2453 0.86239207571175669 -0.44652379806465409 5.17608935796423 25 12 0 0.69624690205948725 15 556 17 1347 18 464 16 34
2454 0.98875707622387776 -0.34849540463060363 5.2453524972714263 70 55 32 0.76732056880482657 15 565 17 1358 18 801
2455 0.7619638254909844 -0.30530410946905606 5.061311887457733 109 80 33 1.0607920531245838 15 883 17 1361 18 804 19 561 22 522 20 219 21 763 23 625
2456 0.25227354636117644 -0.11919699366399357 4.5005787823138874 37 41 40 0.71105133031776635 15 893 17 1373 20 234
2457 1.0022755781432979 -0.11411414658815797 5.1638207714714603 25 12 0 0.52201521298165321 15 895 17 1378 18 816 21 447 23 389 25 262
2458 1.0408586041792538 -0.10159064813292266 5.1982220297991271 97 84 65 0.4935632779829322 15 593 17 1381 18 818 23 650 22 375 25 264
2459 0.65661603667471913 0.45445040672124415 4.9455714109036428 157 108 42 0.77034285389843349 15 920 17 1431 18 859 22 552 21 854 23 886
2460 0.67989461378648652 0.60568037505842276 4.966459485904311 153 102 37 0.58354528126383809 15 654 17 1440 18 868 22 558 21 1068 23 887
2461 0.59829466032003875 0.75768178341658177 4.7986000196974166 130 90 41 0.78327708114133587 15 939 17 1459 18 885 21 564
